# .PCD v0.7 - Point Cloud Data file format
VERSION 0.7
FIELDS x y z intensity roll pitch yaw time
SIZE 4 4 4 4 4 4 4 8
TYPE F F F F F F F F
COUNT 1 1 1 1 1 1 1 1
WIDTH 117
HEIGHT 1
VIEWPOINT 0 0 0 1 0 0 0
POINTS 117
DATA ascii
0.81321532 0.68345749 -0.018459022 0 0.023649137 -0.034339998 -0.020980718 1.7766021e+09
0.042370442 0.64937353 -0.019920943 1 0.017762983 -0.033125147 -0.029993396 1.7766021e+09
-0.53985757 0.62326437 -0.027600531 2 0.015838454 -0.032590311 -0.037713017 1.7766021e+09
-1.0471822 0.60046464 -0.032533731 3 0.018349428 -0.030970745 -0.045056496 1.7766021e+09
-1.7149489 0.5816375 -0.038113408 4 0.015369304 -0.031679284 -0.051405285 1.7766021e+09
-2.2446246 0.56858337 -0.042570293 5 0.014930976 -0.03228585 -0.057604682 1.7766021e+09
-2.9326711 0.54981935 -0.046269719 6 0.015598717 -0.029958997 -0.065173097 1.7766021e+09
-3.5694125 0.51013792 -0.048864454 7 0.018111138 -0.028501622 -0.056902431 1.7766021e+09
-3.8772891 0.48625284 -0.051381763 8 0.019129721 -0.028222635 -0.052761082 1.7766021e+09
-4.4996586 0.4505271 -0.053869888 9 0.01754538 -0.02961063 -0.044494096 1.7766021e+09
-5.4249597 0.38746965 -0.061511394 10 0.01786552 -0.031041291 -0.035195183 1.7766021e+09
-5.7536216 0.36413118 -0.061995234 11 0.017680073 -0.031690866 -0.033515587 1.7766021e+09
-6.9674244 0.26133746 -0.071995027 12 0.017735589 -0.031107165 -0.021884693 1.7766021e+09
-8.818944 0.090108737 -0.080245435 13 0.017273651 -0.027146412 -0.0053603216 1.7766021e+09
-9.2172518 0.045767233 -0.07522963 14 0.01560093 -0.026160493 -0.0023327929 1.7766021e+09
-11.367816 -0.19635327 -0.077991135 15 0.013792887 -0.023973513 0.014005093 1.7766021e+09
-12.296719 -0.3087461 -0.078913063 16 0.011359997 -0.027688861 0.020994524 1.7766021e+09
-13.356117 -0.44405618 -0.085164957 17 0.011967761 -0.030979557 0.026258511 1.7766021e+09
-13.75833 -0.50875777 -0.087557361 18 0.015604276 -0.031774059 0.030586189 1.7766021e+09
-15.796527 -0.80702209 -0.10044618 19 0.01985408 -0.029256782 0.041751821 1.7766021e+09
-16.766344 -0.95103341 -0.104436 20 0.017120125 -0.029950511 0.048519742 1.7766021e+09
-17.746601 -1.110263 -0.10871071 21 0.024471195 -0.028284751 0.049794693 1.7766021e+09
-18.437147 -1.1892858 -0.11284947 22 0.01818647 -0.032187525 0.041809816 1.7766021e+09
-19.682661 -1.3274633 -0.12442461 23 0.021312788 -0.034068994 0.018255107 1.7766021e+09
-20.934845 -1.4142396 -0.1360447 24 0.017641487 -0.036186125 -0.0082973372 1.7766021e+09
-21.771992 -1.4547476 -0.14556035 25 0.015991729 -0.032998815 -0.026143745 1.7766021e+09
-23.039993 -1.4940454 -0.15316372 26 0.01587514 -0.030676173 -0.052138861 1.7766021e+09
-24.826269 -1.5042042 -0.16021521 27 0.019844215 -0.027801583 -0.087940238 1.7766021e+09
-25.510481 -1.4887753 -0.16465312 28 0.017473543 -0.027685031 -0.10281868 1.7766021e+09
-26.200659 -1.4557674 -0.16961585 29 0.020467779 -0.032057974 -0.12041839 1.7766021e+09
-26.739676 -1.4104416 -0.17509401 30 0.014237642 -0.035787411 -0.13333753 1.7766021e+09
-27.696163 -1.3064584 -0.19580072 31 0.015729265 -0.044320818 -0.1704731 1.7766021e+09
-28.109045 -1.2510649 -0.20033874 32 0.013246925 -0.043834351 -0.18621227 1.7766021e+09
-28.522688 -1.188447 -0.206835 33 0.019312084 -0.044143334 -0.21018754 1.7766021e+09
-30.156204 -0.7125836 -0.23117228 34 0.028553713 -0.035319459 -0.36166543 1.7766021e+09
-30.525112 -0.53396493 -0.23486756 35 0.024617376 -0.035709631 -0.40553191 1.7766021e+09
-30.967194 -0.30214807 -0.24132006 36 0.027367946 -0.037052866 -0.46417677 1.7766021e+09
-31.575502 0.20080198 -0.25384024 37 0.033741418 -0.038192932 -0.61808902 1.7766021e+09
-32.05518 0.8169232 -0.26225013 38 0.035513666 -0.038454909 -0.79722691 1.7766021e+09
-32.377392 1.3842435 -0.27692559 39 0.040636111 -0.040561955 -0.94438809 1.7766021e+09
-32.628429 2.0686522 -0.28854817 40 0.045047514 -0.041723873 -1.1098102 1.7766021e+09
-32.778664 2.8206797 -0.30197099 41 0.04620076 -0.039892863 -1.2746313 1.7766021e+09
-32.851803 3.4315941 -0.3052763 42 0.048775375 -0.037095681 -1.3806938 1.7766021e+09
-32.900917 4.3907557 -0.32844055 43 0.047859497 -0.036901899 -1.5072443 1.7766021e+09
-32.886036 4.9437766 -0.32744181 44 0.045638114 -0.036260877 -1.5697155 1.7766021e+09
-32.851917 5.6219172 -0.34731436 45 0.045391329 -0.041705601 -1.6317223 1.7766021e+09
-32.752823 6.8969817 -0.37021151 46 0.043788109 -0.040639054 -1.7002654 1.7766021e+09
-32.738926 7.4898486 -0.37514567 47 0.048654251 -0.035528783 -1.7037103 1.7766021e+09
-32.679588 8.4115658 -0.38893902 48 0.050242644 -0.031832278 -1.7233527 1.7766021e+09
-32.630096 8.7495861 -0.39171758 49 0.054749869 -0.03051055 -1.7464246 1.7766021e+09
-32.472027 9.4209843 -0.40556201 50 0.050149646 -0.036883861 -1.8019565 1.7766021e+09
-32.237488 10.159439 -0.41738242 51 0.057204604 -0.038385931 -1.8900149 1.7766021e+09
-32.016876 10.648907 -0.42022496 52 0.057901904 -0.037072267 -1.9635044 1.7766021e+09
-31.851572 10.928163 -0.42884207 53 0.06158438 -0.03472561 -2.0153937 1.7766021e+09
-31.21216 11.688275 -0.43490544 54 0.060755484 -0.033099066 -2.2095671 1.7766021e+09
-30.231379 12.441111 -0.43936622 55 0.061719209 -0.02595691 -2.4484062 1.7766021e+09
-29.533005 12.822577 -0.44370908 56 0.061691117 -0.02406727 -2.5848348 1.7766021e+09
-27.855452 13.315516 -0.42575699 57 0.058893237 -0.011021322 -2.8816206 1.7766021e+09
-27.225706 13.396616 -0.41924295 58 0.058344357 -0.0086998204 -2.9747925 1.7766021e+09
-26.692375 13.459646 -0.41293097 59 0.057178561 -0.011163568 -3.0268178 1.7766021e+09
-26.370712 13.485501 -0.41094151 60 0.055429861 -0.011898268 -3.0533123 1.7766021e+09
-25.834795 13.518847 -0.4006058 61 0.055134833 -0.011404884 -3.0978169 1.7766021e+09
-24.016558 13.651758 -0.38002399 62 0.053588551 -0.0089119794 3.1357594 1.7766021e+09
-23.060001 13.715851 -0.37274328 63 0.054757509 -0.012055798 3.1182482 1.7766021e+09
-22.63201 13.736592 -0.37040147 64 0.054494012 -0.01419745 3.110883 1.7766021e+09
-21.665077 13.761114 -0.36314607 65 0.049968924 -0.012746841 3.095073 1.7766021e+09
-20.574495 13.792213 -0.35822999 66 0.052848686 -0.013402607 3.0781796 1.7766021e+09
-19.811157 13.793847 -0.34358865 67 0.050941866 -0.011117824 3.064312 1.7766021e+09
-17.384306 13.754394 -0.32130045 68 0.055811685 -0.0079309838 3.0288894 1.7766021e+09
-16.671574 13.738267 -0.31281558 69 0.056110147 -0.0062786355 3.023932 1.7766021e+09
-14.876008 13.763996 -0.29371622 70 0.056388538 -0.01056247 3.0544367 1.7766021e+09
-14.282947 13.7878 -0.28834462 71 0.057064045 -0.012414469 3.0666542 1.7766021e+09
-12.61569 13.908054 -0.28287455 72 0.052730124 -0.017297778 3.1093485 1.7766021e+09
-12.00921 13.980053 -0.28069103 73 0.057188075 -0.016933398 3.1240966 1.7766021e+09
-10.66925 14.128119 -0.27968511 74 0.052194942 -0.021592539 -3.1322258 1.7766021e+09
-10.192932 14.19045 -0.27828643 75 0.054031722 -0.019938411 -3.1261001 1.7766021e+09
-7.3343544 14.460869 -0.26866636 76 0.050027441 -0.018033247 3.1375921 1.7766021e+09
-6.5251126 14.535687 -0.26242217 77 0.055567339 -0.015402931 3.1309102 1.7766021e+09
-5.9437356 14.568268 -0.26222259 78 0.054214075 -0.017705858 3.1238592 1.7766021e+09
-3.1029835 14.653292 -0.24541104 79 0.05456556 -0.015678335 3.0714586 1.7766021e+09
-1.7706615 14.679359 -0.23727863 80 0.056462105 -0.016670557 3.0665536 1.7766021e+09
-1.2825536 14.699479 -0.24047905 81 0.056934465 -0.014688119 3.0687532 1.7766021e+09
1.0952622 14.792438 -0.22364533 82 0.054615382 -0.013109094 3.0820675 1.7766021e+09
1.7294124 14.817845 -0.21963267 83 0.054342505 -0.014053111 3.0870619 1.7766021e+09
2.8693979 14.869583 -0.21754651 84 0.048165832 -0.017558288 3.0951326 1.7766021e+09
4.0168414 14.937364 -0.20488755 85 0.045811296 -0.017179755 3.1024561 1.7766022e+09
4.5389905 14.979517 -0.20349377 86 0.043907743 -0.017193278 3.10795 1.7766022e+09
5.8486934 15.079485 -0.20649511 87 0.046068095 -0.020448655 3.1191318 1.7766022e+09
6.7252994 15.151587 -0.20667642 88 0.046905264 -0.024086459 3.1205804 1.7766022e+09
7.0794969 15.173884 -0.20996532 89 0.049444102 -0.023582201 3.1140652 1.7766022e+09
7.866744 15.1569 -0.20058139 90 0.052587148 -0.018365009 3.0685987 1.7766022e+09
9.0016422 14.92761 -0.19468138 91 0.049224157 -0.016587835 2.927814 1.7766022e+09
9.5619221 14.718027 -0.18659212 92 0.05322358 -0.01428857 2.8312745 1.7766022e+09
10.310371 14.119733 -0.16855465 93 0.052085433 -0.0072857435 2.5799582 1.7766022e+09
10.724023 13.628541 -0.1562455 94 0.052793171 -0.0019060099 2.4106021 1.7766022e+09
11.269831 12.638415 -0.12793474 95 0.047776204 -0.0008795007 2.144001 1.7766022e+09
11.561084 11.723266 -0.1157495 96 0.046389349 -0.004604511 1.9423718 1.7766022e+09
11.725379 10.86339 -0.093480386 97 0.034306791 -0.0030269611 1.8102195 1.7766022e+09
11.836496 10.047904 -0.082811311 98 0.034816079 -0.0035851127 1.7085178 1.7766022e+09
11.872773 9.1571627 -0.067475632 99 0.026827361 -0.007003156 1.6156461 1.7766022e+09
11.869703 8.2702436 -0.043469157 100 0.028385406 -0.0014756924 1.5358685 1.7766022e+09
11.738759 5.3550024 0.01227155 101 0.02861104 -0.0049923277 1.4162335 1.7766022e+09
11.639836 4.8846121 0.018920153 102 0.0298126 -0.0079529276 1.3687973 1.7766022e+09
11.509463 4.447042 0.026538968 103 0.023567541 -0.0093261767 1.3194479 1.7766022e+09
11.14027 3.6181824 0.0347596 104 0.024155429 -0.011758501 1.1775057 1.7766022e+09
10.257708 2.4085886 0.046919711 105 0.017574215 -0.017981129 0.93423128 1.7766022e+09
9.8435507 2.0855064 0.04488945 106 0.016009666 -0.019311406 0.81208587 1.7766022e+09
8.3300753 1.425956 0.045298606 107 0.014330636 -0.023433125 0.42221767 1.7766022e+09
7.6044111 1.2909472 0.040860541 108 0.011981803 -0.028172316 0.27436486 1.7766022e+09
6.5382352 1.1736678 0.032071888 109 0.013896654 -0.029772505 0.11406293 1.7766022e+09
5.6314197 1.1401238 0.027116012 110 0.012247018 -0.028101563 0.025000557 1.7766022e+09
4.9746575 1.12358 0.021220054 111 0.01292933 -0.027170211 -0.015896952 1.7766022e+09
3.5788848 1.0804456 0.013352928 112 0.01198797 -0.032970849 -0.042208627 1.7766022e+09
3.0351081 1.044641 0.010009189 113 0.015256866 -0.031850781 -0.044388443 1.7766022e+09
1.5717382 0.96580899 -0.0030638319 114 0.013483533 -0.034416795 -0.040585384 1.7766022e+09
0.22660102 0.88108516 -0.015521517 115 0.01487835 -0.037441883 -0.034695007 1.7766022e+09
-0.36702254 0.84369963 -0.020508477 116 0.014259647 -0.035699498 -0.033483449 1.7766022e+09
