# .PCD v0.7 - Point Cloud Data file format
VERSION 0.7
FIELDS x y z intensity
SIZE 4 4 4 4
TYPE F F F F
COUNT 1 1 1 1
WIDTH 1206
HEIGHT 1
VIEWPOINT 0 0 0 1 0 0 0
POINTS 1206
DATA ascii
-39.82795 10.982884 -0.57491231 1576.6666
-39.457897 10.901594 -0.55996978 2254.125
-40.327232 11.326876 -0.34423655 846.5
-40.08223 11.17836 -0.48689029 1381.25
-39.724709 11.18749 -0.48904863 1048.3334
-40.207047 11.407395 -0.572671 1927.5
16.967592 11.679971 -0.44904718 1343.2701
17.168909 11.684166 -0.43656838 878.59821
-53.13686 11.802035 -0.47455764 26
-53.095345 11.871138 -0.46914756 61
-49.304249 11.771455 -0.42187762 158.5
-49.026287 11.887483 -0.42155853 1313.875
16.772024 11.92081 -0.4640086 1942.5963
16.877802 11.790609 -0.45659745 1679.2618
17.230211 11.742318 -0.50362664 1929.8612
-53.25626 12.110381 -0.47208571 89.5
-53.088615 12.036275 -0.49316502 36
-48.789631 12.186994 -0.52956808 1104.125
16.930147 12.079059 -0.44933781 2313.6907
17.354322 12.145541 -0.47253186 2983.4075
17.628336 12.047939 -0.41407597 234
26.986801 12.267345 -0.5822469 14
27.072777 12.274313 -0.58044803 38.875
27.418266 12.263555 -0.51085562 51.444443
-53.209251 12.346906 -0.46958494 256
-49.065674 12.501801 -0.40733206 355.66666
17.399418 12.311563 -0.365852 1093
17.489025 12.357717 -0.46393374 1458.326
27.198053 12.428067 -0.47634819 492.61365
27.41218 12.379634 -0.42665029 44.735294
27.717064 12.417259 -0.32168019 13
28.199068 12.31286 -0.41116476 35
28.222336 12.396027 -0.34435177 70
28.568146 12.359286 -0.33438128 40.5
-53.234745 12.773494 -0.46380994 279
-39.995163 12.779197 -0.33555186 588
27.212008 12.732337 -0.4273555 83.60714
27.312517 12.775464 -0.38678083 62.166668
-53.262695 12.975791 -0.49221069 155
-40.939983 13.068312 -0.38909984 27
-40.610722 12.967629 -0.37535247 451.66666
-39.948269 13.005055 -0.35015547 383.16666
-39.726048 13.015535 -0.42591205 782.13159
-39.561241 13.093937 -0.43234557 1238
27.199753 13.048625 -0.39954704 42.875
-40.875572 13.454652 -0.59561163 961
-39.726521 13.360936 -0.47970024 1344.2539
-39.461445 13.424803 -0.52757335 1872.7
27.163504 13.319162 -0.43130949 59.25
27.324074 13.323891 -0.4783625 12
-53.243713 13.675092 -0.46858957 440
-40.894238 13.556135 -0.54719663 465.66669
-39.952332 13.716336 -0.33148071 763.66669
-39.72839 13.632381 -0.46889818 1084.2667
-39.488419 13.603263 -0.49421701 1009.6667
26.951889 13.711669 -0.51739407 26.375
27.172398 13.686217 -0.48215327 62.099998
-52.954472 13.9539 -0.48595682 410
-40.892029 13.809881 -0.58695984 1734
-40.016838 13.969738 -0.37483865 1970.25
-39.726505 13.933706 -0.36075908 1983.8572
-39.482376 13.822362 -0.44327173 2079.3333
27.162762 13.825936 -0.52143991 23
-39.963337 14.270183 -0.43046048 2682.3333
-39.729061 14.305403 -0.43164438 2192.4167
-39.99461 14.440114 -0.42698231 3393.6667
-39.716377 14.586459 -0.47214779 1800.7142
-39.461746 14.610267 -0.36773077 1582.75
-39.922554 14.790665 -0.45420146 3595
-39.759773 14.816328 -0.46264666 1885.7043
-39.504505 14.753849 -0.39239103 1180.0454
-40.338467 15.267818 -0.45004025 802
-40.102482 15.163102 -0.3563121 1428.8572
-39.849663 15.048851 -0.50662804 1599.25
-40.048168 15.443451 -0.40477449 305.25
-40.004364 15.725507 -0.45385155 1363.8
-39.79208 15.772574 -0.3560023 1678.75
-39.554726 15.835199 -0.3574754 1033.5
-53.388618 15.924373 -0.57430863 103
-40.167778 15.91118 -0.4545657 523
-39.452209 16.076019 -0.34637293 1031.5714
-39.231766 16.168638 -0.32175082 217
-39.398354 16.327106 -0.33007893 575.78571
-39.654465 16.524759 -0.32671511 503
-15.381565 16.773655 -0.43555528 1828.3049
-15.113448 16.769064 -0.48317629 2549.7588
-14.862636 16.705664 -0.46637559 1889.6111
-14.694951 16.757149 -0.34235311 3442
-7.6178923 16.780293 -0.31930161 57
-53.553562 17.02664 -0.55492318 368
-15.434213 16.859453 -0.46799776 2458.1658
-15.141998 16.851273 -0.47730881 1746.9166
-14.786516 16.897495 -0.43073657 1719.7546
-14.69772 16.82341 -0.38926014 4248
-7.682507 16.96718 -0.45617411 2007.9877
-7.631815 17.166986 -0.46872905 1738.9572
-7.3008056 17.208809 -0.48153019 1642.0492
-7.1737237 17.219059 -0.38724443 3081.238
-7.3497906 17.409851 -0.39057267 122
-0.033296697 17.585539 -0.40437239 1859.9098
0.099937849 17.53248 -0.46631354 1417.5377
-39.756363 17.934849 -0.31936052 694.5
0.0010910034 17.708553 -0.43621135 315
-42.649635 18.246031 -0.5472151 210.5
5.3427882 18.19422 -0.5489741 1027.0182
5.5027184 18.24782 -0.46866626 737.66479
5.8446794 18.212154 -0.49076834 123.23333
6.161396 18.252554 -0.50449485 110.6
6.5100188 18.25149 -0.53456068 288.92221
6.6388655 18.258902 -0.55773604 949.57568
-42.354004 18.391762 -0.47804797 2056.5
-42.034458 18.392477 -0.47572848 2314.0833
-41.95639 18.505154 -0.49915749 2474.7407
-39.093231 18.449545 -0.46359769 455.89999
-38.875359 18.440351 -0.46206272 450.625
-38.505585 18.420675 -0.38751701 347.94446
-38.24432 18.431028 -0.45901355 265.04544
-37.964249 18.449112 -0.44702441 266.85294
-37.7229 18.471117 -0.44961843 57.799999
-37.401413 18.495859 -0.45908654 263.3125
-37.07119 18.516474 -0.46481392 241.18517
-36.742039 18.557646 -0.45512053 283.08911
5.3776355 18.387411 -0.48713231 645.04285
5.5130668 18.395847 -0.41414365 467.75922
5.8290772 18.322819 -0.41487503 261.5
6.1921506 18.342623 -0.40996292 483.08334
6.4772635 18.375042 -0.40896633 526.77295
6.6238103 18.376894 -0.50265002 1164.2142
-41.972134 18.650375 -0.58940578 2118
-39.154907 18.7337 -0.38886189 467.75
-36.728249 18.684551 -0.44557738 304.48666
-35.430656 18.66507 -0.49319729 355.6976
-35.397942 18.681072 -0.59673131 186
-33.062172 18.807343 -0.44334945 430.75
-32.9902 18.833965 -0.42750865 427.19336
5.3441072 18.72262 -0.51059067 117.25
5.5107684 18.699326 -0.34658906 122.35714
6.4612522 18.716118 -0.3581827 351.27274
-36.751183 19.079483 -0.44991672 263.75
5.3568931 19.109676 -0.5144732 193.5
5.520339 19.098162 -0.4118453 455.5
5.7236705 19.07865 -0.39718401 536
6.4654527 19.140419 -0.38299081 512.33331
6.6056809 19.002983 -0.53105408 137.5
-39.311436 19.331142 -0.30742046 342
-36.754807 19.304445 -0.56375331 212.55554
5.3635507 19.344419 -0.50900894 888.25
5.4043808 19.281212 -0.43661147 570.5
6.4759674 19.31282 -0.4570148 622.63336
6.6567268 19.439339 -0.5394572 423
-39.329964 19.708939 -0.54065609 350
-36.763416 19.680077 -0.47253332 127
5.3077106 19.661282 -0.53403878 362.5
5.4787512 19.629307 -0.50135005 491.39999
6.5846291 19.618629 -0.57165664 840.75
-36.765907 20.053896 -0.30124754 205
5.2868233 20.01823 -0.58981282 26
6.527369 19.979317 -0.51708376 1152.5
6.6350703 19.993908 -0.47837067 1149
-36.783199 20.216192 -0.3741602 216.66667
-33.127399 20.243958 -0.3975369 386.91669
5.2862878 20.330038 -0.49484536 807.66669
5.6696887 20.313961 -0.48107928 773
6.2768645 20.192568 -0.47204006 563
6.4954152 20.253975 -0.50682902 1041.5
-36.799328 20.449495 -0.46173692 232.33333
5.2031827 20.47164 -0.5395512 1592
5.4785638 20.518688 -0.49114379 283.33334
6.4841194 20.582819 -0.55681717 681.5
-36.792072 20.801136 -0.32350805 27
5.1860695 20.884848 -0.57976139 1187.6428
6.4952979 20.829887 -0.56051344 738.5
45.460033 20.828665 -0.51932889 52.142857
70.919319 20.875158 -0.46493101 46
-36.924648 21.098812 -0.55813593 8
5.1742048 21.028524 -0.59056044 285
6.4967289 21.058176 -0.59313351 536
-36.87254 21.410612 -0.44279253 163.75
16.466265 21.581491 -0.38145623 2867.5
16.586784 21.560776 -0.46552289 1392.7255
45.456619 21.317715 -0.56068718 86
-36.827465 21.863976 -0.4073711 19
16.343506 21.742216 -0.44300663 1497.672
16.641594 21.624441 -0.56504637 1026.4166
-36.94648 22.044825 -0.41568065 203.25
16.096134 21.932411 -0.44099778 334
16.309078 21.944374 -0.40795654 1024.3666
-157.98058 22.431589 -0.32920897 22
-36.970657 22.23558 -0.38205728 316
-36.961411 22.65262 -0.45157883 153.33333
-0.37727022 22.78713 -0.34954557 442.33334
-33.481144 22.852179 -0.30498451 611
-33.087471 23.062092 -0.34509319 10
-0.44925368 22.888777 -0.46334457 1348.1066
-0.16441712 22.891497 -0.45857438 1666.4098
0.025743127 23.033751 -0.36188489 1856.65
-0.62959623 23.186005 -0.45656735 839.67859
-0.58510798 23.16028 -0.40179798 1491.1666
-0.043228149 23.206587 -0.43412894 1003.75
0.073747396 23.223206 -0.50591904 1768.0834
-157.9063 23.880184 -0.51501775 29
34.482307 23.732056 -0.57172346 347
34.646667 23.715441 -0.43557343 266.20001
31.793282 25.42067 -0.50977027 420.5
31.917025 25.373653 -0.4570072 381.73172
32.127724 25.354933 -0.42630434 291
33.129467 25.426041 -0.51015621 321
31.780266 25.759544 -0.3813774 485.5
31.874342 25.693396 -0.56768483 131.33333
-158.03369 25.923279 -0.37576231 36
31.781738 25.865536 -0.51294959 358.5
31.826769 25.82723 -0.3936573 211.5
31.7726 26.264854 -0.44941214 276.375
31.725653 26.566442 -0.41804722 142.66667
31.244751 27.449453 -0.34204158 150
16.166607 28.178446 -0.55026692 1168.5
16.373611 28.17141 -0.5213176 767.125
16.524057 28.171011 -0.59127033 501.33334
16.161055 28.343216 -0.47852606 824.77386
16.346348 28.254347 -0.41240489 807.98608
16.579197 28.245491 -0.46513817 751.65143
31.490231 28.69787 -0.52957803 207
31.477894 29.043558 -0.5569725 409
31.44565 30.104166 -0.43427381 173.75
31.40382 30.388477 -0.36706704 339
31.39254 30.788578 -0.51188481 408.5
31.364376 31.019117 -0.40626627 438.875
31.314682 31.460419 -0.47416782 356.625
31.301945 31.64031 -0.44387454 180.5
-28.582327 31.930687 -0.48690075 926.45837
-28.383081 31.943478 -0.4809379 634.74072
31.414356 31.837431 -0.31739938 40
-28.345772 32.252739 -0.44853789 61
-16.883869 32.28508 -0.45423862 1261.1818
-16.781927 32.28035 -0.51936454 375
-11.88867 32.690693 -0.47522345 590.09998
-12.024729 32.712082 -0.44900024 452
-11.886139 32.724297 -0.47216132 907.50006
-6.9866695 33.158669 -0.44819283 752.04169
-6.8746781 33.152546 -0.47313404 1429.4166
-1.9534075 33.581245 -0.48061916 1343.262
-53.908134 33.655308 -0.48615524 33
-40.555923 33.721539 -0.4551149 113
-40.44038 33.867371 -0.517892 242
-1.9041262 33.610321 -0.47468618 712.66669
-53.979893 33.900776 -0.54485661 6
-42.902107 34.119308 -0.51173007 110
-40.408577 33.955425 -0.48473766 36
2.9286766 34.072834 -0.39721158 734.25
3.0987442 34.073803 -0.50019944 1442.6428
-32.95285 34.288059 -0.39974824 550.5
-23.460648 34.472553 -0.48249492 281.66666
-23.283842 34.450279 -0.44714847 681.20831
3.1385012 34.207783 -0.43192807 297
-23.577314 34.650108 -0.50019729 435.10001
-23.026321 34.597275 -0.47664699 151
11.641344 35.076954 -0.41334543 570.5
-17.435951 35.328217 -0.4267807 201
-17.249807 35.337555 -0.47677055 481.89285
-17.067211 35.366501 -0.43850091 854.61108
11.491582 35.160511 -0.44145119 563.66669
11.91866 35.140114 -0.42729568 486.60001
-53.997704 35.629322 -0.52438807 51
-18.383949 35.554115 -0.40811372 461
-18.092222 35.610531 -0.53595835 410.83334
-17.82365 35.577145 -0.49859196 168
-16.990952 35.415466 -0.46048445 994.5
-16.875738 35.790737 -0.54440922 712.83331
-16.764881 35.790264 -0.43762439 758.125
-16.401463 35.846718 -0.39221811 396.5
-15.689083 35.907677 -0.50369871 624.5
-15.54722 35.916634 -0.46630955 1129.8
-12.391729 35.852894 -0.44025823 331.92856
-12.1706 35.792511 -0.45262447 614.54816
-11.988779 35.876915 -0.45028615 512.125
26.353073 35.930256 -0.48374709 304.33334
-15.372298 36.163578 -0.41778705 336.16666
-15.246472 36.196747 -0.46319112 592.5
-13.969841 36.15057 -0.44274107 1692.5
-12.478159 36.151157 -0.46688032 221.2
-12.144847 36.069736 -0.43558919 279.25
-7.3194838 36.234787 -0.46210939 883.625
-7.1659589 36.23901 -0.41630301 1326.2222
-6.0749583 36.265995 -0.47892058 1898.5
26.302206 36.058399 -0.52220762 300.66666
26.527319 36.081879 -0.54209679 234.25
-25.434696 36.578812 -0.32352382 34
-12.995524 36.37801 -0.45476294 380.39999
-12.817761 36.391258 -0.46473894 477
-11.848495 36.462082 -0.49623957 362
-11.548669 36.521049 -0.41468838 348.16666
-9.90588 36.570816 -0.50432539 497.22226
-9.8652658 36.560989 -0.34220964 240
-7.4464073 36.452087 -0.471697 586.25
-6.0476494 36.319363 -0.40080273 2223.5
-5.8257489 36.346233 -0.48036766 2690.6482
-5.5500488 36.372185 -0.48193738 2288.7188
-5.3135295 36.433121 -0.33460313 1430
-4.8650284 36.382866 -0.5543195 705
-4.7436619 36.450752 -0.42285728 557
-3.9240186 36.513054 -0.42454916 2235.25
-3.8134556 36.517063 -0.39829808 2297
-3.3882055 36.554379 -0.39854977 3057.5557
-3.1713974 36.497482 -0.45147544 1738.8
-54.142448 36.812675 -0.55803609 44
-25.359089 36.670364 -0.32855588 263.5
-8.2025433 36.836021 -0.49498194 178.75
-7.9570732 36.814278 -0.44615197 161
-7.7133918 36.823532 -0.47608951 300
-2.0256157 36.754738 -0.45985734 551
-36.412148 37.146278 -0.35533252 790
2.6376128 37.135139 -0.42615506 848.5
2.8410258 37.1101 -0.46694744 768.875
3.0710821 37.099545 -0.54705215 37
-36.004234 37.368202 -0.37173206 531
-35.972694 37.427757 -0.34397537 305
-0.86640072 37.29834 -0.50549412 206
-0.41477999 37.269444 -0.4169184 258
-0.26294065 37.283325 -0.43760625 405.25
0.054960489 37.304352 -0.49030775 109
0.54169083 37.358128 -0.53921133 681
0.6194815 37.385124 -0.54505897 591
2.5332353 37.290489 -0.33715582 621.5
1.5134318 37.539143 -0.41685605 317
3.0825243 37.593781 -0.43319714 34
-19.4147 38.327324 -0.36080524 241
-19.502293 38.656105 -0.50536644 151
-19.464512 38.602791 -0.48701665 171.71428
-19.538752 38.782215 -0.32074422 407
-19.488073 38.829334 -0.53401893 257
-19.745102 39.218227 -0.53888083 113
-17.754955 39.469135 -0.58189929 360
6.7052636 39.455063 -0.34725526 362
7.085104 39.517139 -0.35198238 281.33334
7.315702 39.483807 -0.41523966 373.16666
-40.985672 39.611946 -0.5975073 111
7.126502 39.7799 -0.4332892 376
7.6898851 39.677723 -0.41515189 426
7.4557133 40.105827 -0.54999602 189.5
7.5890522 40.007889 -0.56493229 271.66666
7.9200273 40.100296 -0.51454937 299
15.178609 41.438873 -0.41951215 279.5
24.227169 41.494736 -0.59404141 43
-26.988731 41.948009 -0.40914777 369
-37.960419 42.257015 -0.54604411 158.5
-28.853065 42.569817 -0.4933213 140.5
-28.648901 42.556763 -0.42479879 330.79999
-28.460398 42.584755 -0.578336 420.5
-31.730671 42.814629 -0.48765814 192
-28.426552 42.619835 -0.3080847 379
19.335405 43.081699 -0.44139245 269.86365
19.657862 43.120739 -0.35011709 414.66666
20.15937 43.172661 -0.41370466 647
20.92872 43.180786 -0.52016091 158
10.715799 43.338928 -0.36882681 343.60001
10.850405 43.377506 -0.34344339 263
11.825245 43.458652 -0.36789232 214
19.245583 43.253216 -0.46770412 241.28125
22.744812 43.407944 -0.58608747 354
41.681122 43.415508 -0.48143065 142
10.669763 43.606346 -0.44994015 468.79999
12.650206 43.529774 -0.4022072 177
13.057606 43.642548 -0.4675467 201.5
26.786835 43.772018 -0.55533385 237.5
41.672512 43.94149 -0.51740873 285
41.70472 43.838108 -0.51167363 332
5.557343 44.80986 -0.47432959 487.18182
7.2446818 45.041145 -0.47670013 416
14.578985 45.452187 -0.47876933 777.5
14.765443 45.449677 -0.49613792 766
14.910799 45.748085 -0.38922396 225
35.168602 47.556213 -0.59168184 44
-29.198133 53.886333 -0.35575566 176.25
-28.952497 53.802132 -0.43779093 77
-28.627527 53.848602 -0.39197892 280
-27.053745 53.986877 -0.35141194 236
-26.954906 53.992687 -0.38585883 257
-29.271996 54.578583 -0.53666401 139.25
-29.551941 54.649384 -0.53407645 154.5
-29.302219 54.6026 -0.56659967 273
32.649055 -44.498878 -0.045105457 241
32.608822 -44.385609 -0.1345775 41
-48.498306 -39.934242 -0.22485474 10
30.038805 -38.252632 -0.22608565 67
16.398338 -30.372683 -0.13144219 312.5
-49.188255 -30.102591 -0.12319542 10
-49.181164 -29.833389 -0.1576353 17
-49.173332 -29.636795 -0.042034075 11
17.791832 -29.483137 -0.23877618 247.5
-49.487526 -26.028057 -0.20338506 9
19.924021 -26.077152 -0.0028710365 268
30.274693 -24.6579 -0.19803266 16
30.335056 -24.667833 -0.16612226 18
30.140915 -24.543491 -0.27477136 12
-49.626965 -23.733986 -0.14804308 16
-49.632256 -23.679153 -0.27113241 15.5
-7.5300674 -23.299313 -0.023689989 86
19.587143 -23.282335 -0.20320389 185
19.563389 -22.97946 -0.209536 130.5
-49.769821 -22.545074 -0.21604601 20
-49.847107 -22.34705 -0.029245228 31
-46.360504 -21.980139 -0.20591879 41
-35.726486 -21.935905 -0.15927528 960
-35.532581 -21.923321 -0.11968899 949.09998
-35.342068 -21.908047 -0.27976587 1241.5
-33.494259 -22.125156 -0.11777808 1222.75
-32.775562 -22.05529 -0.20276557 899
-32.10984 -21.90798 -0.16493814 971
-46.563187 -21.814739 -0.18868449 571
-46.490955 -21.89599 -0.0041217059 365
-35.754463 -21.862463 -0.13030377 1269.3334
-35.531033 -21.862425 -0.16069961 1675.0909
-35.242928 -21.881948 -0.17226936 2020.4
-34.431747 -21.860125 -0.25849563 937
-33.80899 -21.702511 -0.17591938 483
-32.954578 -21.800547 -0.14097983 1931.6666
-32.169674 -21.845421 -0.20565094 1838.75
-32.040169 -21.795998 -0.15163089 942.29413
-31.680485 -21.814095 -0.13793364 1455
-31.289825 -21.765232 -0.21970655 1097.5
-30.395281 -21.615112 -0.10194632 519
-49.856255 -21.484728 -0.094404683 82
-33.812721 -21.323286 -0.16897899 986
-31.256348 -21.588118 -0.041387171 1671.5
-24.921261 -21.496515 -0.27557579 1321
-21.200663 -21.302164 -0.046791263 2429
-49.814301 -21.255468 -0.0079909265 20
-49.795986 -21.169701 -0.22477487 9.5
-33.826244 -21.059742 -0.12987238 814.70001
-20.780581 -21.242968 -0.045510083 2232.25
-2.3488295 -21.130188 -0.21038678 467
-49.896767 -20.900932 -0.20090181 21
-33.932152 -20.965393 -0.12540832 1295.5
-33.863819 -20.984535 -0.18731116 1209.0625
-30.415735 -20.713892 -0.11550149 1463.9166
-29.44949 -20.958439 -0.17761898 1286
-29.322016 -20.932405 -0.19767462 1387.8334
-17.375027 -20.769426 -0.21305272 1720
-1.8242378 -20.801632 -0.21499616 204
1.3333395 -20.791824 -0.0085367579 554.5
2.3955908 -20.913542 -0.079577103 628
-49.895222 -20.587946 -0.17087503 26.666666
-30.373436 -20.696486 -0.070678115 1067.25
1.6041327 -20.541641 -0.012922205 463
1.9065866 -20.571449 -0.035400432 400
13.589613 -20.485542 -0.014689539 231
-49.929909 -20.176069 -0.10931341 35.5
-5.8881354 -20.197273 -0.10426559 473.75
-5.6050191 -20.201393 -0.19060582 715
8.8031092 -20.119993 -0.060165863 558.66669
10.452847 -20.233612 -0.19935967 539
12.240702 -20.118544 -0.065304637 116.5
13.434357 -20.218624 -0.15849692 560
13.582182 -20.24526 -0.21547975 405.11111
27.915302 -20.350391 -0.2405735 99
-16.473969 -19.826939 -0.21199964 2164
-5.8209729 -19.980066 -0.21712375 671.83331
-4.5235839 -19.812475 -0.22560118 998
-4.1012011 -19.911882 -0.16795659 454.66666
-3.0299261 -19.995798 -0.29790422 928
-2.8402047 -19.876389 -0.29326868 484.5
0.16912365 -19.9487 -0.21121353 776
0.36059847 -19.953524 -0.22517744 891
6.5880451 -20.048683 -0.026769914 339
6.6956673 -20.056067 -0.036649249 843.83331
8.8085995 -20.077248 -0.19445252 634
10.472613 -20.052698 -0.082818277 670.83331
10.613038 -19.865217 -0.12460615 642.43335
12.174706 -20.072813 -0.093822695 145.5
13.059652 -19.87961 -0.13081267 543
13.346657 -19.971624 -0.094008997 584.59998
-13.029572 -19.61854 -0.15124276 1497
3.6339202 -19.50243 -0.10413371 632
3.9786866 -19.720747 -0.09686777 50
5.1676817 -19.56567 -0.12856568 566
10.725144 -19.754961 -0.11876789 789.66669
11.000485 -19.675161 -0.14423239 192.14285
11.275181 -19.578262 -0.16280898 445.36111
11.512189 -19.575947 -0.14430593 407.64285
11.795721 -19.684349 -0.11272383 203
-25.979345 -19.306744 -0.11508852 741.16669
3.2146804 -19.316271 -0.16816123 578.41669
3.4583721 -19.294451 -0.17465915 743.5
3.7058523 -19.320459 -0.1795374 738.77271
3.9564281 -19.337601 -0.15743747 596.5
5.1887498 -19.29991 -0.21945557 731.75
5.5343766 -19.315845 -0.15783472 617.33331
6.8143401 -19.269335 -0.064214453 330.5
6.9559355 -19.246881 -0.068888575 316
17.398327 -19.235149 -0.27461553 51
-50.100174 -18.938951 -0.21008766 14
-50.07362 -18.970203 -0.17047647 25.75
-28.783655 -18.926437 -0.017558098 477
-26.006186 -18.986597 -0.11869305 848.30957
-24.640629 -19.173651 -0.16437685 1528
3.248827 -19.184052 -0.28823906 690
3.5307794 -19.184254 -0.23515424 759.29999
3.6728852 -19.173912 -0.2287631 1145
5.2990232 -19.120539 -0.25972804 931.33331
5.4843998 -19.000097 -0.27547845 427.66666
6.8235884 -19.029581 -0.23214412 1118.4
7.0133433 -19.054411 -0.17874859 600.65387
27.820011 -18.934826 -0.29781577 63
-50.146912 -18.803148 -0.12516026 54.599998
-50.07954 -18.821777 -0.24366677 19
-28.822613 -18.718449 -0.026449755 719
-28.753536 -18.687468 -0.065912224 793.07141
-26.149952 -18.72817 -0.15336636 618.59998
-26.036333 -18.749458 -0.22670507 697.59088
-21.860558 -18.721233 -0.12298635 680.5
-1.2867233 -18.696836 -0.17795768 291
-1.1663914 -18.672729 -0.033176154 288
-0.81792831 -18.698027 -0.15965858 561
-50.246948 -18.439968 -0.11792887 134.75
-50.038906 -18.504158 -0.14495826 247
-28.846024 -18.468164 -0.27711284 578
-28.68981 -18.493889 -0.14125504 982.83331
-26.215712 -18.473829 -0.12925923 671.41071
-26.06436 -18.543953 -0.20067663 814.83331
-24.058212 -18.356256 -0.12723917 321
-21.798027 -18.418612 -0.15140565 961.89819
-20.121004 -18.445026 -0.18950137 1003
-20.045729 -18.386412 -0.11674007 645.5
-18.131701 -18.368431 -0.17578454 771.66669
-16.089245 -18.437128 -0.25595176 807
-12.481844 -18.365673 -0.26073134 720
-9.5928211 -18.372358 -0.11154598 376
-1.0576735 -18.553509 -0.12172823 982.54547
1.4157696 -18.32198 -0.22757845 747
17.291779 -18.459921 -0.28630823 58
19.291878 -18.412844 -0.24997669 611
49.915997 -18.390892 -0.18717596 54
-50.301086 -18.207424 -0.21703559 38
-28.565815 -18.248558 -0.11414912 1349.75
-28.380226 -18.17522 -0.15544893 978.79858
-28.176487 -18.138092 -0.24444576 614.59998
-26.716394 -18.036591 -0.23437786 902.66669
-26.502096 -18.154203 -0.14368467 873.67859
-26.369789 -18.238436 -0.10037944 950.375
-24.038448 -18.148153 -0.10899506 1277.6333
-23.970016 -18.077768 -0.13256343 862.77783
-21.840757 -18.123796 -0.13152848 705.94702
-19.978613 -18.150209 -0.12917262 901.81818
-18.173779 -18.154709 -0.16853774 805.94
-16.069836 -18.118711 -0.20879814 857.33337
-14.032833 -18.051355 -0.17758715 852.625
-12.506742 -18.128309 -0.12494787 795
-9.9363708 -18.034508 -0.27696091 938
-9.8992405 -18.038153 -0.084392861 1288
-9.5788918 -18.215931 -0.030439762 570.75
-6.2611079 -18.090281 -0.093292922 604
1.4652942 -18.277967 -0.20167631 911.33331
1.5657903 -18.277143 -0.19553174 783.83331
7.6908011 -18.088699 -0.19255483 258
19.378109 -18.226095 -0.20336057 158
27.838779 -18.24995 -0.26640499 78.5
28.048428 -18.223064 -0.25185895 8
-50.243896 -17.971003 -0.14460646 58.5
-28.267618 -17.935322 -0.05616384 889.5
-28.037523 -17.836437 -0.11124446 815.90912
-27.77072 -17.833542 -0.19637671 654.11108
-27.445543 -17.78838 -0.15113962 693.3913
-27.173859 -17.808201 -0.10668546 811.5
-26.807348 -17.952936 -0.1383203 899.70233
-23.812374 -17.807571 -0.14161257 1012.9946
-23.648302 -17.732227 -0.15143041 989.875
-21.96896 -17.818895 -0.14172994 832.11365
-21.875483 -17.91144 -0.1665342 767.04767
-19.867296 -17.913349 -0.14552854 1025.6136
-19.679707 -17.785133 -0.14155018 595.95001
-19.362305 -17.710793 -0.11795297 694
-18.658821 -17.720425 -0.078330673 1357.6666
-18.447174 -17.805264 -0.16507666 1021.9231
-18.291035 -17.97699 -0.17416871 1376.3334
-16.057583 -17.902142 -0.14977518 1000.2023
-14.134046 -17.766279 -0.2318211 1139.3334
-14.060882 -17.852442 -0.11306869 865.375
-12.410414 -17.854996 -0.12953958 889.25
-12.271629 -17.721958 -0.10302942 500
-9.978611 -17.850132 -0.19699569 1044.4
-9.860652 -17.959581 -0.088890858 1112.3334
-8.5517159 -17.771999 -0.21930413 658.5
-6.2321787 -17.817062 -0.13545021 679.90002
7.7357578 -17.901533 -0.10932729 585.5
7.8906794 -17.834164 -0.1473358 635.79999
8.1056948 -17.929497 -0.21488373 738
17.174847 -17.709345 -0.29218811 68
27.859522 -17.83757 -0.28946021 25
28.009726 -17.883827 -0.21584833 33
-50.349335 -17.444443 -0.1693809 28
-28.002914 -17.668962 -0.055526946 291
-27.62854 -17.695915 -0.089143485 361
-27.581129 -17.696831 -0.15959418 1145
-23.733011 -17.680012 -0.2558572 1460.375
-23.567745 -17.570934 -0.19278021 799.99023
-23.193113 -17.472029 -0.10855647 697.71429
-22.969055 -17.460806 -0.10288288 760.62964
-22.622665 -17.48934 -0.15374373 848.14288
-22.296583 -17.592558 -0.14051919 815.97369
-22.117374 -17.662821 -0.14722985 833.77777
-19.588305 -17.650959 -0.13489768 796.09521
-19.330267 -17.645758 -0.13255653 674.1842
-19.031837 -17.582657 -0.13131434 957.79712
-18.786512 -17.644503 -0.18192391 795.26666
-16.000765 -17.634146 -0.1526449 676.09998
-15.775751 -17.532518 -0.1865059 853.52692
-15.561987 -17.423363 -0.1385074 381
-14.449589 -17.410131 -0.081207857 382
-14.282367 -17.502396 -0.17010795 912.22217
-12.35629 -17.544792 -0.14529783 879.36365
-12.265035 -17.531509 -0.15483816 559.40002
-10.04815 -17.484367 -0.14503968 908.44116
-8.5584726 -17.514803 -0.077922635 981.7381
-6.3433485 -17.522858 -0.25325984 1022
-6.2490573 -17.522049 -0.10301914 852.5
-50.297241 -17.351721 -0.049296923 69
-15.407113 -17.323977 -0.13517231 737.45453
-15.152995 -17.291954 -0.135516 746.57501
-14.866085 -17.282879 -0.13133503 702.63635
-14.565965 -17.346718 -0.17931977 665.19049
-12.355315 -17.365431 -0.18704979 807.5
-12.18644 -17.279423 -0.16799355 896.14288
-11.905719 -17.127851 -0.17937542 376
-10.572142 -17.119778 -0.25056106 525
-10.270355 -17.211357 -0.19527619 979.10712
-10.109244 -17.311775 -0.091204979 917.16669
-8.542944 -17.272516 -0.14212079 822.67365
-6.4026423 -17.220764 -0.15319036 1069.95
28.195333 -17.117928 -0.23868114 496
28.225931 -17.200108 -0.1328821 459.25
-14.836393 -16.989218 -0.10516381 856.5
-11.818228 -16.952721 -0.13526957 999.43127
-11.566899 -16.908651 -0.16551876 804.96155
-11.237346 -16.867552 -0.14110449 856.53571
-11.008608 -16.897467 -0.12477447 697.58331
-10.636723 -17.012035 -0.1584952 740.36841
-10.406816 -17.041533 -0.080756478 956.5
-8.4199038 -16.943596 -0.13267197 919.55554
-8.3722639 -16.870407 -0.1412361 927.5
-6.6608076 -16.864258 -0.20881538 1176.0605
-6.5367217 -16.939001 -0.12013435 979.06665
28.189974 -16.933626 -0.013750616 129
28.210922 -17.017735 -0.20649633 283.75
-11.184769 -16.783398 -0.097440638 950
-11.078321 -16.791189 -0.0056962231 993
-8.1915617 -16.665436 -0.11029249 921.28064
-7.9778242 -16.5602 -0.14710316 902.48749
-7.6696568 -16.524128 -0.15011205 824.65625
-7.3315911 -16.539272 -0.14700903 504.33334
-7.0729151 -16.588875 -0.14841545 759.9928
-6.7703977 -16.730333 -0.11254232 862.45831
-50.366825 -16.382744 -0.022069324 49.5
-7.889658 -16.477074 -0.11868704 671.5
-7.6797118 -16.485287 -0.12945709 832.625
-7.3787713 -16.485329 -0.17942329 867.5
-7.0632095 -16.497694 -0.14164819 351
-50.463081 -16.029449 -0.13367851 19
-50.492851 -15.842198 -0.15270478 10
-50.260761 -15.452603 -0.21619312 203.33333
29.554062 -15.380956 -0.10094181 412.66666
-50.287216 -15.098436 -0.20194277 206.875
29.599163 -15.271629 -0.18089002 588
-50.256744 -14.915174 -0.1653485 161.25
-50.310745 -14.634255 -0.20985284 64.5
-50.523777 -14.263695 -0.17286 83
-155.34933 -13.541918 -0.055809766 19
-50.337761 -13.234298 -0.11764085 23
-50.436134 -12.937925 -0.17324011 65.199997
-50.459503 -12.824 -0.20547652 77.666664
-50.454414 -12.439705 -0.24318865 378
-50.456894 -12.052958 -0.26184353 98
-50.480038 -11.624724 -0.2010296 52
-50.508678 -11.271164 -0.21570705 40
-50.569347 -10.860633 -0.22162628 43
-51.583939 -10.519444 -0.027201727 12
-50.552711 -10.574776 -0.23022327 33
-51.673054 -10.335763 -0.024402013 77
-145.06281 -10.137217 -0.070158571 32
-50.774223 -9.9605665 -0.23978677 98
-50.693714 -10.049055 -0.27155063 44
-50.731461 -9.8301506 -0.24518631 72
9.3746262 -9.884366 -0.22859028 757
-51.734444 -9.4382401 -0.031341061 56
-50.692017 -9.0033064 -0.20057696 23
-32.15551 -9.213109 -0.15422578 183
-32.080284 -9.2205009 -0.091789067 42
-51.67305 -8.975071 -0.051632434 42
-50.60482 -8.8699427 -0.19966693 3
-50.71056 -8.666131 -0.20416279 10
-20.439463 -8.6333513 -0.16017072 818.03125
-20.34721 -8.6264572 -0.18887031 469.20834
-52.005947 -8.1544933 -0.11758168 32
-51.803307 -8.1705856 -0.082277007 56
-50.738251 -8.2720966 -0.21403719 5
-51.794052 -7.8155355 -0.069905952 64
-51.886978 -7.75349 -0.001883477 125
-51.915436 -7.1579571 -0.024450332 370
4.3658981 -7.04848 -0.18770781 711.2879
-50.848404 -6.6529317 -0.27255756 157
9.4223299 -6.6313453 -0.16704026 1853.3578
9.6724186 -6.7556734 -0.13777201 2241.5444
-51.819363 -6.3113265 -0.082410567 159.5
-50.965084 -6.3380675 -0.17107232 6
9.328042 -6.5954857 -0.20834203 1875.8333
-51.960419 -6.1117682 -0.035017658 189.66667
-51.872845 -6.2148528 -0.03212408 180
-51.381538 -6.2910151 -0.011361763 62
-51.03318 -6.1407208 -0.2850872 144
-50.813042 -6.160049 -0.28227484 114
5.6695557 -6.0966887 -0.29444781 49
-51.983646 -5.9394388 -0.039283663 275
5.4686942 -5.4744301 -0.29397729 646
5.3156323 -5.3928814 -0.29900882 1315
5.4514866 -5.3468113 -0.2835623 890
5.8680062 -5.1964669 -0.26983175 493.33334
6.121973 -5.2803679 -0.28364107 664.33331
5.2306399 -4.9528136 -0.29121932 369
5.6017742 -4.9331694 -0.2706919 744
5.8589959 -4.8892231 -0.27037138 865
6.1407304 -4.898046 -0.28136417 697.83331
18.676687 -5.0025635 -0.04886229 208
5.1968756 -4.7019196 -0.29795969 205
5.5312181 -4.6769676 -0.27951455 386.39999
5.9337025 -4.7100878 -0.27402183 749
6.1474161 -4.6061149 -0.29228336 511.60001
18.453695 -4.6734552 -0.16215247 2302.8333
27.839449 -4.6093659 -0.20711297 322.66666
-28.354227 -4.2530336 -0.15707655 1498.755
5.5400538 -4.4875259 -0.29751399 528.5
5.8966789 -4.4668846 -0.29185414 299.25
18.125582 -4.4696608 -0.0052217264 1979.5
27.866451 -4.3203874 -0.24141563 915
28.288731 -4.4006152 -0.027968755 658.5
-51.30452 -4.1344328 -0.1575634 827
-51.26519 -4.1518178 -0.11281383 357
-28.645151 -4.0744472 -0.1396675 1897.4419
-28.37067 -4.0412455 -0.1472664 1922.5175
27.880066 -4.1181593 -0.24994257 388
28.078724 -4.0604091 -0.13871679 454.14285
28.222761 -3.9940586 -0.032211687 701
18.510992 -3.7553487 -0.14145054 2712.1523
18.696312 -3.6934443 -0.20143259 363.16666
28.074194 -3.7196548 -0.11397652 524.91669
28.231821 -3.6560006 -0.033295985 752.40002
-53.108437 -3.4173656 -0.05877462 210
-53.048454 -3.4297297 -0.14289106 677
37.759079 -3.3569412 -0.0078338534 187
-13.169065 -3.0159163 -0.15549707 13
-13.293637 -2.8488426 -0.18996978 1786.7653
-13.17324 -2.8820035 -0.19148779 1745.4222
-5.8171005 -2.4618185 -0.18560518 1595.4006
-5.8559027 -2.3832314 -0.11454206 1754.7064
1.6136233 -2.1277919 -0.17907429 1862.125
1.8407593 -2.135287 -0.078181602 574
-37.947941 -1.8616229 -0.15817846 795
-37.723564 -1.9244026 -0.20593974 2811.3
-37.287182 -1.9151425 -0.12350309 2825.0186
-37.107956 -1.8648608 -0.071779341 2152.2976
1.6974621 -1.9980153 -0.16774575 1588.4227
1.8360294 -2.0413933 -0.22427367 1598.7733
55.582993 -1.9407597 -0.05031956 107
-37.860737 -1.7542977 -0.24040753 2023.8334
-37.562233 -1.5645009 -0.093260378 2591.5908
-37.324036 -1.7084413 -0.15274324 2761.0837
-37.138 -1.7518306 -0.14381558 2961.3857
-37.545979 -1.4763753 -0.05669985 1399.375
-37.363255 -1.331943 -0.039198246 2436.625
55.579292 -1.3609352 -0.063599214 67
-37.276577 -1.0333778 -0.040393624 1903.7114
-37.147179 -1.1287355 -0.013292819 2120
18.22863 -0.90827513 -0.19339469 153
18.383558 -0.96203697 -0.031020869 205
18.196239 -0.85558277 -0.09291707 808.91663
18.662334 -0.83948064 -0.26872101 2737
18.287127 0.53919673 -0.081505813 2852.3333
18.33416 0.50742 -0.10570978 1893.1833
18.273981 0.61883324 -0.18817313 2591.6667
18.434198 0.70085746 -0.14928024 1481.3186
-53.731289 1.6235576 -0.18945539 122.5
-53.608734 1.6933619 -0.092641078 357.16666
-53.755688 1.9305754 -0.16703466 405.60001
-53.618267 1.8311485 -0.10770816 694.66669
-40.224979 1.9504082 -0.19105981 271.72665
-40.184223 1.9886287 -0.1175203 398.54166
56.526161 1.8997754 -0.15934369 62.5
-40.116032 2.2898774 -0.0026129782 19
56.524925 2.1897171 -0.19606788 141.5
56.708107 2.3942823 -0.0029626787 36
-160.69424 2.6050999 -0.23906308 29
-39.963711 3.5483041 -0.1347457 1393
-39.846642 3.5480106 -0.19409621 1597.6666
-40.288795 3.7950532 -0.23286887 2212
-39.976589 3.7347929 -0.17423183 2202.1819
-39.852379 3.6446962 -0.15831238 1744.2334
-40.216003 3.9453053 -0.15095104 1753.1428
-40.173595 4.0484781 -0.21845736 1909.1625
-40.28083 4.3752675 -0.19288485 1602.1436
-40.181431 4.3092861 -0.15853098 3021.4001
17.613609 4.6442327 -0.13255796 1538.6201
17.744186 4.5499954 -0.21912761 1038.1167
17.621599 4.9066062 -0.14459734 2893.2212
17.844667 4.9801126 -0.089007311 1631.2037
-161.36543 5.7985492 -0.078450114 48
-29.131418 5.9665971 -0.10600124 1614.3969
-29.064091 5.9599395 -0.14285637 2318.1157
-29.137991 6.0442448 -0.15221357 2425.9431
-28.99205 6.0756812 -0.18758111 3278.8333
-28.71413 6.1618133 -0.14793909 2267.7341
-21.339317 6.2756162 -0.12645127 2543.2908
-21.288551 6.2843008 -0.16429631 3104
-52.967594 6.5574832 -0.095555305 266.66666
-21.381248 6.3909798 -0.17159754 2408.9231
-21.163757 6.428762 -0.17669564 1683.5555
-20.849585 6.5183315 -0.15906589 1993.111
-14.197126 6.5673246 -0.11587369 2599.3833
-13.839735 6.5829659 -0.17441112 1220.5
-13.575408 6.5440474 -0.13204482 2449.9294
-13.482149 6.5279527 -0.032162488 2379.8069
-52.850201 6.7271867 -0.21991026 632.90002
-52.775505 6.8106875 -0.1019439 654.5
-40.050022 6.8319259 -0.18145472 611.44702
-39.860394 6.8104138 -0.058870077 647.66669
-20.849169 6.629498 -0.092920065 1998.2294
-14.192964 6.6718931 -0.16811115 2065.1956
-13.975723 6.6717157 -0.18454854 1656.2083
-13.665075 6.67068 -0.20141336 2082.0967
-52.856617 7.0069213 -0.10500473 451.66666
-52.774597 6.9055443 -0.061696306 508.5
-40.36084 7.0537639 -0.12846601 1092.1666
-40.076664 6.9960923 -0.14073978 2426.8025
-39.814281 6.9279199 -0.001942426 48
-40.555573 7.4402051 -0.10201398 121.25
-40.41317 7.3667755 -0.17954016 2104.8918
-6.9260979 7.4741411 -0.11967115 64.5
-6.7283273 7.4035654 -0.15889011 2109.5637
-6.7287707 7.5121551 -0.20516376 345.66666
1.0382724 7.776556 -0.15860245 496
-52.416771 7.953392 -0.13640399 67
-52.15617 7.9465132 -0.12259725 347.125
0.2887764 8.032568 -0.042146489 188
0.47624627 7.9888558 -0.14913723 1960.575
0.79198337 7.959846 -0.15519521 1766.3778
1.0009884 7.8935962 -0.16247235 1858.5714
-52.256493 8.1396933 -0.053198427 613.5
0.50802612 8.1217499 -0.035067528 306.5
0.7824226 8.1624146 -0.10430166 1902.4722
8.231884 8.3260384 -0.14538626 2295.8428
8.212122 8.4516468 -0.12850527 1816.3582
-52.591248 9.8084669 -0.044203907 119.66666
-52.432598 9.7943182 -0.0056507289 175.66667
-40.512329 9.6594353 -0.24482651 504
-40.461105 9.7861347 -0.25642249 257.5
-52.955715 9.952878 -0.052278757 53
-52.453915 9.9073915 -0.13855088 135.5
-52.917591 10.312041 -0.045606166 104
-52.390896 10.652199 -0.022604734 180
-40.343021 11.303973 -0.26978594 800.25
-52.612656 11.530567 -0.061708786 24
-40.328346 11.401837 -0.27466831 1089
16.97797 11.679748 -0.15443343 1232.4937
17.142298 11.637912 -0.1513427 2572.6389
-52.884579 11.830746 -0.051420659 76
-52.600716 11.832788 -0.030986752 144.5
-52.476631 11.770912 -0.030607089 82
-49.30304 11.803538 -0.15469375 259.20001
-49.051636 11.915947 -0.10046548 1199.2
16.784504 11.889393 -0.13669781 2203.2271
16.863991 11.811345 -0.1718647 1811.396
17.183752 11.75268 -0.18244612 1757.5
-52.712635 12.104647 -0.069197655 39
-48.992477 12.089747 -0.1252638 1385.5
-48.783276 12.155093 -0.13686655 1022
-40.312016 12.13924 -0.01860404 163
-39.554352 12.070909 -0.011706233 220
16.894409 12.056159 -0.15742174 2811.4814
17.36869 12.196401 -0.20181374 3404.9219
-52.590599 12.472097 -0.061444297 39
-49.02673 12.462732 -0.16509029 449.71429
-40.59351 12.394681 -0.11435262 1321.6666
-40.106316 12.539811 -0.013117164 1036
17.477726 12.361157 -0.18649578 574.09521
27.226452 12.564753 -0.27440369 12
27.54747 12.412868 -0.27224621 45
27.708889 12.39637 -0.24772429 70
28.130085 12.423493 -0.23038322 90
28.314125 12.378649 -0.27935603 46
-40.306278 12.725599 -0.039323233 338
-40.094181 12.853752 -0.037502915 1413
-39.363632 12.715551 -0.017984137 1859.5
27.445765 12.813811 -0.23275392 116.33334
-41.93877 13.021565 -0.022396991 812
-40.946201 12.99763 -0.24642351 1016
-40.779102 13.067291 -0.25632986 1636.6666
-39.985279 13.084157 -0.20652963 1054.5834
-39.853249 13.089175 -0.22630435 722.33331
27.160208 13.072324 -0.25684905 52.666668
27.303074 13.119145 -0.22827011 84
-40.865967 13.289057 -0.21711053 687
-39.971642 13.355324 -0.24481054 1067.7142
-39.813469 13.238652 -0.29465303 79
-39.469952 13.393377 -0.15184294 1689.3
-39.250984 13.433472 -0.072068214 906.5
26.901741 13.436378 -0.29844052 4
27.106403 13.266329 -0.29575807 37.5
27.310968 13.236752 -0.23430623 159
-39.960533 13.611101 -0.24425821 2902.5
-39.738499 13.654015 -0.24946216 1181.1428
-39.401798 13.56709 -0.1106416 1824
-39.254959 13.515328 -0.039424367 1123.5
-38.638443 13.774477 -0.088036984 2695
27.333197 13.603289 -0.26837653 154
27.645308 13.57227 -0.20477062 127
-40.017876 14.010206 -0.2763027 1833
-39.793026 13.849957 -0.23963785 697.33331
-39.568478 14.090512 -0.27785653 1075
-38.848858 13.911438 -0.034892391 1752.3334
-52.681183 14.171913 -0.11778179 98
-40.045227 14.36425 -0.26031017 3654
-39.700241 14.254199 -0.19637281 1815.1818
-39.586235 14.257046 -0.15991352 2658.6667
-39.731247 14.545071 -0.21657336 1972
-39.45417 14.543002 -0.18029816 1520.125
-39.267891 14.598607 -0.21858901 1398.5
-38.969418 14.420591 -0.10686338 1766
-39.700447 14.796677 -0.2337044 1004.875
-39.558968 14.897946 -0.1658681 1675.5
-39.097733 14.851282 -0.014656156 1891
-40.109177 15.265805 -0.2884126 441
-39.767334 15.206184 -0.17653477 286.5
-39.449726 15.196294 -0.092218034 1350.8334
-39.075821 15.052664 -0.013680816 1945
-39.968964 15.444008 -0.21115868 1258.6666
-39.72382 15.53763 -0.24491133 244
-39.713306 15.782269 -0.1814855 1375.2
-39.538456 15.773081 -0.25368389 1509.625
-39.249107 15.816836 -0.13696536 1369.5
-52.902618 15.998267 -0.14759129 195.33333
-39.34119 16.015465 -0.23490465 811.5
-39.241898 16.040531 -0.25705841 1447.5
-52.847931 16.730907 -0.093475789 65
-40.293098 16.601786 -0.018016487 561
-39.993378 16.643539 -0.059755281 1089
-39.820087 16.722157 -0.032302022 760.20001
-38.278702 16.680874 -0.11489063 467.5
-15.406527 16.757996 -0.16809499 1928.4596
-15.269967 16.770144 -0.16402501 3740.5557
-14.803406 16.658588 -0.17596334 1665.9928
-14.673328 16.732649 -0.1407925 2149.6257
-52.911949 17.003317 -0.18894577 74
-38.110023 16.945713 -0.15681547 1050
-38.052898 16.933172 -0.099527389 1322
-15.500285 16.845531 -0.11697189 2748
-14.807938 16.863281 -0.19257949 2233.8467
-14.686705 16.824139 -0.10561097 1585.0789
-7.6840887 16.926956 -0.17444409 2523.083
-7.3418808 17.049086 -0.11740375 2465.4368
-7.1384864 17.035637 -0.0078707337 2639.5
-52.998207 17.378405 -0.10411204 57
-7.6380043 17.113701 -0.25086796 1553.5
-7.282424 17.235323 -0.19488961 1359.8973
-7.1429453 17.253038 -0.16699697 2123.4888
-0.069812298 17.357567 -0.11716497 70
-52.975742 17.657871 -0.11829038 85
-39.687092 17.661184 -0.079079747 790
-7.236362 17.451681 -0.19809137 94.833336
-7.1476569 17.40007 -0.19717796 783
-0.039467454 17.543837 -0.13965669 1201.15
0.10830127 17.520252 -0.14093579 1574.9584
-52.844498 17.974424 -0.13965167 370
-52.795189 17.979586 -0.19618711 173
-39.672512 17.863245 -0.15158848 1397.1282
-39.577717 17.923212 -0.118869 1573.8888
0.14191961 17.755962 -0.11667425 1961
-39.611504 18.177036 -0.10942806 1628
-39.49419 18.119637 -0.041221894 1200.75
-39.195644 18.260513 -0.05207894 135
-38.600334 18.169672 -0.020350605 752
-38.28965 18.173567 -0.017028838 1674.2
-37.771507 18.205227 -0.021667361 1879
-37.298943 18.242062 -0.023126602 1685
-36.941769 18.244869 -0.011400938 2532
-42.035454 18.344641 -0.25567597 2467
-41.9352 18.485891 -0.29167038 2366
-39.603668 18.301886 -0.061543703 880
-39.500576 18.356436 -0.08255969 517.79999
-39.135506 18.400814 -0.13044694 234.14285
-38.915913 18.469467 -0.16262046 381.66669
-38.490704 18.440964 -0.2260472 294.125
-38.23777 18.451334 -0.22427212 273.33334
-37.974194 18.467434 -0.16384763 334.60001
-37.601036 18.488213 -0.18513395 127.625
-37.356674 18.509998 -0.2338876 375.79166
-37.096264 18.50679 -0.1798396 270
-36.757072 18.555758 -0.19149548 284.72125
-36.428112 18.476267 -0.051751409 263.16666
-36.144897 18.527817 -0.059462555 333.5
-35.805706 18.474409 -0.033781085 615.66669
-35.659843 18.584301 -0.069465473 49.5
-34.226059 18.431532 -0.0074645281 208
-33.024773 18.581656 -0.010057744 49
-32.631744 18.555441 -0.021047713 836.73077
-42.03299 18.740129 -0.14374724 319
-41.840591 18.61372 -0.075474024 730
-37.55291 18.785294 -0.11569601 349
-37.411606 18.659456 -0.11408299 466
-36.731464 18.638155 -0.20184746 405.25
-36.493374 18.647411 -0.092124671 178
-36.001083 18.629599 -0.082635969 202
-35.820435 18.627211 -0.050281614 202.25
-35.473186 18.658293 -0.16175576 395.04736
-35.297276 18.699574 -0.084112726 197.57143
-34.899151 18.692667 -0.053242575 211
-34.672977 18.751486 -0.067455202 233.75
-34.405869 18.759428 -0.062809899 201
-34.030704 18.741196 -0.060995657 146.41667
-33.728004 18.803865 -0.052706134 227.8
-33.552467 18.782368 -0.041277491 72.5
-33.065075 18.816496 -0.15515105 418.871
-32.861866 18.797186 -0.084945053 308.57895
-32.675213 18.764843 -0.026444688 687.625
-36.716846 19.008463 -0.25101936 573
-34.68951 19.060638 -0.086190388 205.2
-33.751225 19.169785 -0.080209702 294
-33.500065 18.933521 -0.057557166 204
-32.744289 18.965721 -0.066925719 39
-32.672592 19.011793 -0.069512099 760.5
-36.747692 19.412189 -0.13500416 480.39999
-35.659092 19.361401 -0.11371899 260
-34.715916 19.338186 -0.097184777 198.66667
-33.72155 19.287416 -0.080537587 368.5
-33.00602 19.35672 -0.068799466 257
-32.710026 19.407784 -0.088918328 783
-32.674416 19.302849 -0.027484834 942
-36.734077 19.58242 -0.16967964 432.33334
-36.459045 19.737556 -0.13195929 127
-36.057247 19.666876 -0.12266263 218
-35.722454 19.629898 -0.12687847 168
-35.636547 19.701857 -0.096432872 292.78571
-35.285301 19.729506 -0.12543368 148
-34.9622 19.732445 -0.12174762 217.16667
-34.681896 19.755955 -0.083674923 406.4375
-34.333092 19.753849 -0.11757731 108
-33.920658 19.799206 -0.10888489 115
-33.788498 19.724346 -0.088972732 235
-33.069599 19.646984 -0.084692672 238
-32.707443 19.775833 -0.029327214 792
-32.686138 19.673407 -0.061000258 84
-36.811115 19.976875 -0.24219844 319
-35.734123 20.036512 -0.15006876 127
-34.077843 19.820787 -0.11731181 276
-33.759865 19.870581 -0.10993488 136
-33.534481 19.929575 -0.10207742 166.33333
-33.148972 19.806181 -0.099165767 212
-32.77013 19.969927 -0.095071785 378.60001
-36.810333 20.294317 -0.24222039 202.33333
-35.70874 20.123165 -0.14714316 189
-34.764263 20.223488 -0.13407131 234.66667
-33.745438 20.268963 -0.1184732 294
-33.123344 20.227551 -0.19004719 323.85895
-32.775101 20.274199 -0.073935054 522
-32.671051 20.212959 -0.024283055 68
-36.75613 20.516312 -0.19588535 259.75
-36.481102 20.696148 -0.18162636 159
-36.200592 20.690796 -0.185635 157
-35.783249 20.625998 -0.1429681 261
-34.915768 20.651857 -0.16893022 487.66666
-34.75684 20.625107 -0.14394991 150
-33.852386 20.652256 -0.13951582 299
-33.311192 20.688755 -0.17380409 19
-32.784447 20.530441 -0.09401188 237.5
71.645844 20.454227 -0.18211666 12
-36.52816 20.753893 -0.18231276 156
-36.198086 20.710583 -0.1838066 125
-35.760071 20.714233 -0.14356892 268.5
-35.625862 20.746376 -0.16211343 239.5
-35.150661 20.736162 -0.19800302 1720.625
-35.014832 20.747705 -0.21191415 1771.05
-34.650589 20.793312 -0.20368637 885.26923
-34.41407 20.835094 -0.21281704 480
-33.976303 20.852772 -0.19393116 175.5
-33.861069 20.713057 -0.13203454 199
-33.433769 20.81695 -0.19916236 12
-33.10495 20.935385 -0.17389646 149
-32.81147 20.907709 -0.1196054 598.36365
45.531338 20.994347 -0.24502215 46
-35.832142 21.039946 -0.1938967 119
-32.819775 21.173491 -0.10779314 662.66669
16.626577 21.252357 -0.041731838 1465.5693
-36.971878 21.516628 -0.22140709 294
-36.756626 21.550325 -0.18518065 138
-35.874771 21.489939 -0.19723922 162.66667
-32.82016 21.461334 -0.09234485 242
16.465725 21.515823 -0.21227689 1599.125
16.616043 21.417742 -0.20037033 1065.8334
-36.691631 21.755472 -0.21990328 180
-34.327156 21.860523 -0.20541802 136.5
-34.10743 21.881325 -0.20092016 229.5
-33.852783 21.785397 -0.18724534 206
-33.475502 21.86261 -0.18915907 204
-33.259739 21.755821 -0.18346643 205.5
-32.877193 21.77146 -0.13778679 305.57144
16.365847 21.758099 -0.16994424 1647.3676
-34.570522 21.923176 -0.19844513 126
-33.74926 22.006212 -0.20100801 129
-33.58691 21.979687 -0.18978524 102
-32.878288 22.040106 -0.13528793 257.57144
16.398788 21.975767 -0.094913401 1259.1428
-35.889256 22.388926 -0.24124116 114.66666
-32.902046 22.308332 -0.1692438 211.25
-0.49530447 22.492767 -0.038236499 111
-37.022472 22.582521 -0.26981568 407
-36.8452 22.629896 -0.24374017 188
-35.936901 22.644629 -0.24808474 168.33333
-35.52383 22.789883 -0.26391858 166
-35.115326 22.760685 -0.25122315 89
-34.986473 22.6621 -0.24493989 190.5
-33.987392 22.733965 -0.23094761 137.66667
-32.908577 22.718575 -0.17489763 324.5
-0.37679398 22.728073 -0.14582169 1161.3798
-0.22396031 22.75206 -0.093135394 2674.0417
-35.534065 22.812414 -0.26389304 112
-34.827179 22.802736 -0.23025861 183
-34.666405 22.851946 -0.24479716 71
-34.384216 22.872997 -0.26098618 137
-34.095463 22.81991 -0.23868707 142
-33.828136 22.88352 -0.22660486 149
-33.481094 22.922585 -0.26989469 669
-32.918934 22.934454 -0.17213485 328.29999
-0.49823925 22.895695 -0.16903983 2011.3711
-0.097856618 22.866571 -0.14608824 1953.1842
0.033935651 22.990479 -0.1027758 1831.0333
-32.926975 23.281109 -0.20178141 290.22726
-0.57173491 23.220589 -0.16927667 829
-0.0085573196 23.11301 -0.14561746 853.5
0.055501599 23.157076 -0.14749312 1610.9954
45.186867 23.568956 -0.01963542 28
34.453331 23.76877 -0.034731887 37
34.652088 23.731709 -0.23312131 340.75
34.822445 23.718819 -0.21820104 222
34.181389 24.140596 -0.097907811 248.25
34.273689 24.081129 -0.10537899 162.3
-157.87309 24.730438 -0.26959038 28.5
44.991108 24.872295 -0.021924749 87
49.152336 24.882267 -0.17090094 102
31.750174 25.447924 -0.23204236 153.66667
31.896698 25.395744 -0.2653282 297
32.601528 25.426167 -0.24418017 211
32.963421 25.427626 -0.23094201 365.5
33.021606 25.422729 -0.2338782 377
44.926201 25.287851 -0.02334464 65
48.968098 25.445602 -0.22572783 31
31.837273 25.600382 -0.26288158 316.5
39.878723 25.949289 -0.17338575 133
40.206188 26.003736 -0.17121086 132
44.393017 26.496618 -0.16609833 187
44.415936 26.504946 -0.15031563 375
44.828133 26.73785 -0.022944964 170
44.358269 27.052578 -0.12655662 115
44.804718 27.4431 -0.028244369 87
31.567884 28.193302 -0.25505638 321
16.141243 28.480808 -0.065170251 317
16.298872 28.367821 -0.15786055 958.29834
16.608927 28.288038 -0.083313391 825.53705
31.548254 28.370707 -0.26076016 255.66667
16.209358 28.532417 -0.16346854 510.375
44.16349 28.61935 -0.12649092 67
31.577213 28.877491 -0.24860744 122
31.50506 29.129055 -0.21441603 60
31.406672 29.412975 -0.22752672 66
31.518999 29.405714 -0.27532509 220
31.42207 30.101749 -0.25611123 99
-28.518982 31.771149 -0.18993403 710.66669
-28.422085 31.750561 -0.11756109 1021.75
31.330406 31.516247 -0.25386354 71
-28.576239 31.825663 -0.1881644 1021.8333
-28.259989 31.851782 -0.1258194 668.33331
-16.89819 32.283607 -0.14601266 1110.465
-16.772762 32.269199 -0.27182281 886
-16.907352 32.453926 -0.12237564 1154
-12.007789 32.687134 -0.0010892749 286
-11.907869 32.687996 -0.088172406 502.08337
-42.846989 32.731773 -0.0083750486 17
-41.623535 32.836166 -0.02201134 494
-12.036523 32.720543 -0.16849399 200
-11.893584 32.729744 -0.15553471 926.22803
-6.9868298 33.160458 -0.14678629 820.85419
-6.8801942 33.147213 -0.1108791 1015.2222
-1.9314578 33.582104 -0.17947517 1292.4375
43.852516 33.321823 -0.25855446 28
-2.1077976 33.801502 -0.067733958 272
-1.9640816 33.638157 -0.20316499 919.08331
2.9644361 34.076553 -0.18090789 1179.8334
3.0685735 34.046402 -0.21151441 913.61108
-33.043518 34.286964 -0.15622 513
-32.951839 34.282085 -0.14126681 578
-23.474876 34.483295 -0.094865762 508.5
-23.233076 34.450203 -0.13398755 615.8125
2.9115906 34.255802 -0.1260222 408.66666
19.417524 34.318726 -0.15759695 105
-23.575132 34.64983 -0.19652143 344.5
11.5817 35.061882 -0.091555864 556.375
11.774822 35.062828 -0.15757932 664.13635
19.309418 34.985477 -0.23081338 249
-19.906841 35.37682 -0.10539707 253.375
-17.207161 35.336578 -0.11887239 572.80951
-17.058453 35.369572 -0.057699669 888.14288
