# .PCD v0.7 - Point Cloud Data file format
VERSION 0.7
FIELDS x y z intensity
SIZE 4 4 4 4
TYPE F F F F
COUNT 1 1 1 1
WIDTH 377
HEIGHT 1
VIEWPOINT 0 0 0 1 0 0 0
POINTS 377
DATA ascii
0.16689767 1.3850908 -0.11571429 0
0.18349054 1.0575544 -0.1141883 1
0.14069577 0.39768982 -0.11391473 2
0.077783599 -0.18138361 -0.12192087 3
0.056238241 -0.55831796 -0.12198029 4
-0.0065500513 -2.0443523 -0.13665742 5
-0.063688025 -2.9630251 -0.13880149 6
-0.067417681 -3.315408 -0.13491899 7
-0.10206465 -3.9705436 -0.13254787 8
-0.10717376 -4.2740154 -0.13598432 9
-0.15359485 -4.8345399 -0.13895719 10
-0.17561045 -5.3121734 -0.13987713 11
-0.19218786 -5.7428422 -0.14016205 12
-0.22017692 -6.3590593 -0.13974112 13
-0.24883762 -7.3803663 -0.14644898 14
-0.26147252 -8.2157421 -0.14870831 15
-0.29982886 -9.0368462 -0.14659113 16
-0.28753468 -10.036619 -0.15724897 17
-0.29423144 -11.83318 -0.17649016 18
-0.2911827 -12.385948 -0.17443934 19
-0.2823922 -12.86728 -0.17244628 20
-0.287193 -13.220977 -0.16857807 21
-0.28641811 -13.554352 -0.1697377 22
-0.28061455 -13.93707 -0.16450432 23
-0.34829286 -15.16106 -0.1584089 24
-0.41576305 -15.829816 -0.15912068 25
-0.53926206 -17.071749 -0.16525693 26
-0.86604607 -20.850807 -0.18693647 27
-0.96151334 -22.778437 -0.18347643 28
-1.0630413 -24.624897 -0.18647705 29
-1.2307031 -28.495018 -0.20279785 30
-1.2501675 -29.683935 -0.19604114 31
-1.3838525 -39.427567 -0.20725302 32
-1.3722291 -40.84853 -0.20929757 33
-1.3462509 -41.671684 -0.20998506 34
-1.0143529 -45.028919 -0.22742891 35
-0.9469651 -45.456905 -0.22432451 36
0.028370421 -49.113609 -0.2267632 37
3.3366857 -54.894966 -0.1973924 38
5.826458 -56.465473 -0.17502432 39
9.2875175 -57.520126 -0.15240404 40
11.951567 -57.952629 -0.13405611 41
13.985861 -58.095741 -0.12090252 42
16.020586 -58.113033 -0.10855618 43
18.297548 -58.058903 -0.091395184 44
20.890678 -57.977047 -0.072159462 45
23.500742 -57.942215 -0.068054385 46
26.31871 -58.001522 -0.063039429 47
29.595934 -58.167446 -0.039712228 48
33.551811 -58.446514 -0.016077036 49
34.760704 -58.546227 -0.0081008123 50
37.162834 -58.729889 0.010283265 51
39.877293 -58.877663 0.012053147 52
41.084045 -58.941204 0.019027213 53
43.828957 -58.927467 0.042168837 54
45.347862 -58.863468 0.052093938 55
46.873043 -58.784981 0.065680981 56
48.999924 -58.652267 0.071895182 57
50.217342 -58.587475 0.070615299 58
51.448334 -58.524265 0.07269647 59
55.769344 -58.436024 0.085911274 60
56.393734 -58.445889 0.079970345 61
61.080311 -58.397453 0.093592659 62
62.636391 -58.380199 0.10682929 63
63.249844 -58.361355 0.11248446 64
67.302956 -58.233276 0.14129575 65
69.790985 -58.180843 0.13279201 66
73.579819 -58.188107 0.14747922 67
75.150398 -58.265408 0.15111507 68
78.544975 -58.900932 0.16129373 69
79.445549 -59.169189 0.15885952 70
82.791794 -60.946648 0.20320533 71
85.146049 -63.909233 0.18638149 72
85.573807 -64.886131 0.18318449 73
86.104065 -69.811905 0.16631864 74
86.000053 -76.712852 0.17144053 75
86.154404 -82.908928 0.16165088 76
86.103699 -86.723206 0.15434745 77
86.082283 -88.490723 0.15274261 78
86.145279 -89.761185 0.15385583 79
86.174362 -90.482964 0.14717796 80
86.252342 -91.170135 0.14647718 81
86.318748 -91.549103 0.14890154 82
86.467651 -92.377441 0.14489447 83
86.713531 -93.423447 0.14456022 84
87.048401 -94.522041 0.15490225 85
87.395462 -95.491158 0.16127408 86
87.512497 -95.827759 0.16450246 87
87.692505 -96.341454 0.16128378 88
87.9832 -97.585335 0.16127788 89
88.221214 -99.480278 0.16676198 90
88.254082 -100.2455 0.17073143 91
88.253029 -101.04104 0.16540314 92
88.271576 -102.60409 0.16907431 93
88.271431 -103.20734 0.1740502 94
88.246307 -103.81976 0.17261274 95
88.143936 -105.23802 0.16103975 96
88.130974 -105.63557 0.16565783 97
88.015984 -107.8211 0.15647109 98
87.853027 -109.97578 0.15020306 99
87.77417 -110.76519 0.15383779 100
87.736092 -111.16096 0.15027061 101
87.631485 -113.19324 0.14108063 102
87.615685 -113.80772 0.14620487 103
87.514091 -114.84247 0.1471381 104
87.169113 -116.51411 0.13114694 105
86.449257 -118.30917 0.12025908 106
85.808182 -119.42772 0.1108499 107
85.158157 -120.29494 0.097832114 108
84.885399 -120.6292 0.096196644 109
83.62899 -121.78901 0.09528894 110
82.318626 -122.89396 0.081957661 111
81.825615 -123.30523 0.085994735 112
80.281433 -124.45339 0.089775227 113
79.566101 -124.93083 0.085075825 114
79.198959 -125.14955 0.081408508 115
77.471252 -126.06747 0.059532087 116
76.433075 -126.46705 0.060892787 117
75.284775 -126.81933 0.051160093 118
73.311577 -127.22271 0.03122762 119
72.032455 -127.4521 0.019602636 120
70.667984 -127.69227 0.0031591493 121
69.32254 -127.81889 0.0095828176 122
67.335426 -128.00142 -0.016116153 123
65.315186 -128.13087 -0.018604182 124
64.436447 -128.1525 -0.021513296 125
63.838474 -128.18616 -0.021351252 126
63.240261 -128.18811 -0.033407051 127
62.640118 -128.19762 -0.031467296 128
57.286777 -128.3372 -0.07293921 129
56.170193 -128.31538 -0.078675903 130
55.635235 -128.27975 -0.083666489 131
52.330734 -128.03627 -0.099345736 132
51.683899 -127.97485 -0.064481989 133
50.2579 -127.91498 0.040166643 134
49.159168 -127.91486 0.071079031 135
48.811153 -127.92312 0.10159774 136
47.851055 -127.91154 0.12888667 137
45.659145 -127.98036 0.14910181 138
45.174252 -128.00862 0.15115651 139
40.384136 -127.9433 0.12688093 140
39.512245 -127.94942 0.13834035 141
36.836514 -128.01221 0.12281754 142
33.754723 -128.17671 0.059660889 143
31.002378 -128.3111 0.033322684 144
29.246248 -128.39355 0.038692985 145
27.820587 -128.4763 0.032416034 146
26.154541 -128.60686 -0.026443942 147
22.415173 -129.04602 -0.2815519 148
21.02042 -129.17624 -0.32753661 149
19.448193 -129.43254 -0.33696592 150
18.538233 -129.53865 -0.3413482 151
13.969693 -130.03398 -0.3795262 152
12.89475 -130.13951 -0.37244955 153
11.600177 -130.2662 -0.38991976 154
10.100476 -130.32597 -0.40071073 155
7.9825611 -130.23592 -0.41084278 156
4.1367311 -129.37392 -0.43537301 157
3.7477052 -129.19771 -0.44096717 158
3.3655863 -129.0152 -0.43945643 159
0.83158791 -127.15363 -0.46512935 160
0.42372283 -126.67706 -0.463828 161
-1.5677081 -122.86346 -0.47709516 162
-2.3981478 -118.07542 -0.45995092 163
-2.6103687 -116.05069 -0.47508907 164
-2.6569345 -115.2682 -0.48044896 165
-2.9155462 -111.87032 -0.50202656 166
-2.9751279 -110.38211 -0.50653583 167
-2.9927373 -109.78344 -0.5092485 168
-3.0046458 -109.48068 -0.50750762 169
-3.1109722 -104.29618 -0.51161855 170
-3.0974619 -102.75755 -0.49072284 171
-3.1152561 -100.3079 -0.50914115 172
-3.2008283 -97.284119 -0.50187474 173
-3.3407707 -93.590576 -0.46367997 174
-3.3670907 -92.054535 -0.45093006 175
-3.3519909 -88.938721 -0.45882651 176
-3.4186287 -84.873848 -0.42726573 177
-3.5711784 -80.864586 -0.40259439 178
-3.5906837 -80.563026 -0.3872692 179
-3.5600183 -79.010757 -0.37435055 180
-3.3929141 -71.335579 -0.2850599 181
-3.405288 -69.457237 -0.29186526 182
-3.4023166 -63.745117 -0.26500514 183
-3.3081334 -59.629761 -0.25334609 184
-3.244082 -56.488117 -0.23064797 185
-3.1147625 -51.502022 -0.25581726 186
-3.1160567 -49.932884 -0.26656792 187
-3.2049336 -45.237694 -0.24532001 188
-3.243433 -42.415127 -0.23353709 189
-3.2296996 -38.685539 -0.23456772 190
-3.1395674 -36.185532 -0.21843705 191
-3.017345 -33.406147 -0.22871767 192
-2.993722 -32.792225 -0.23601323 193
-2.7960136 -28.377157 -0.23537798 194
-2.7535291 -26.809021 -0.2356368 195
-2.8627129 -23.355986 -0.20643401 196
-3.052902 -19.931372 -0.20903899 197
-3.1057677 -16.505909 -0.16595793 198
-3.102654 -13.735593 -0.17196408 199
-3.1369636 -10.677642 -0.1819281 200
-3.0847254 -6.1972604 -0.1702024 201
-3.045974 -4.1037402 -0.16635208 202
-2.9014752 2.4391179 -0.15019734 203
-2.8354588 5.3837667 -0.14332579 204
-2.8489537 6.2534981 -0.15074417 205
-2.8706508 9.4309797 -0.16136996 206
-2.8649449 11.718537 -0.16072232 207
-2.8069689 14.279476 -0.15952726 208
-2.7693942 17.808989 -0.13022786 209
-2.7464094 18.354815 -0.12090948 210
-2.7442393 20.829659 -0.12092286 211
-2.8892801 24.142818 -0.10232912 212
-2.910341 24.694031 -0.095480569 213
-3.0000906 26.349607 -0.093484454 214
-3.0588543 29.414474 -0.079426989 215
-3.0496438 29.961166 -0.090220541 216
-3.0406036 32.669464 -0.089583948 217
-3.0229123 33.993305 -0.078619331 218
-3.0226128 34.772129 -0.084088393 219
-3.0300386 38.082893 -0.078385524 220
-3.092438 39.101887 -0.081811041 221
-3.1736596 39.862793 -0.071964934 222
-3.4758084 42.965885 -0.089453056 223
-3.9694817 45.704433 -0.082519941 224
-4.1826124 46.420856 -0.08688353 225
-4.5467534 47.342232 -0.079256885 226
-5.2839479 48.594955 -0.083254457 227
-5.7605281 49.155697 -0.086492591 228
-6.4523649 49.825424 -0.088955984 229
-9.3184872 51.44157 -0.092192978 230
-10.460668 51.857166 -0.1018028 231
-12.342862 52.451729 -0.10891978 232
-15.326986 53.08569 -0.10356261 233
-17.934927 53.4986 -0.11162754 234
-20.375778 53.859509 -0.13207106 235
-23.947054 54.364807 -0.14149508 236
-27.809042 54.865337 -0.14879943 237
-31.463739 55.06361 -0.17039338 238
-32.023415 55.072521 -0.16702043 239
-32.599308 55.076023 -0.16228539 240
-35.436829 55.110283 -0.18914956 241
-37.924103 55.164742 -0.20480524 242
-39.579491 55.229031 -0.19536261 243
-41.214348 55.314396 -0.2091103 244
-41.753822 55.352566 -0.21320459 245
-43.089226 55.415249 -0.21834664 246
-44.950737 55.4972 -0.20865928 247
-46.539574 55.521637 -0.22137408 248
-47.069695 55.541965 -0.21956806 249
-49.165115 55.583843 -0.22012578 250
-50.465675 55.61227 -0.22728086 251
-52.042919 55.645958 -0.23481376 252
-53.091423 55.650295 -0.22794284 253
-54.373901 55.656864 -0.23105329 254
-56.169964 55.69017 -0.2266501 255
-58.030136 55.70723 -0.2336885 256
-58.567013 55.70417 -0.24212024 257
-59.665657 55.661732 -0.24860996 258
-61.917881 55.512165 -0.25701684 259
-64.743294 55.182331 -0.25267121 260
-67.188454 54.763462 -0.25408533 261
-68.239464 54.565102 -0.26524368 262
-69.787842 54.196346 -0.25642866 263
-72.389091 53.438965 -0.28091666 264
-72.910881 53.270542 -0.27886271 265
-75.409424 52.382195 -0.28216386 266
-77.533638 51.497612 -0.25484842 267
-78.688637 50.954529 -0.2575635 268
-79.379173 50.630226 -0.26682201 269
-80.930046 49.824295 -0.26996571 270
-81.572777 49.461151 -0.26908609 271
-83.92939 48.122887 -0.28390995 272
-85.570862 47.06403 -0.29279289 273
-85.97728 46.792328 -0.29399073 274
-87.754898 45.543129 -0.29675937 275
-88.137199 45.25502 -0.29832786 276
-89.690552 44.077553 -0.30558527 277
-91.664459 42.473038 -0.30586365 278
-92.474968 41.79269 -0.31390214 279
-95.703773 38.721817 -0.25419003 280
-97.243355 37.064545 -0.18328924 281
-98.509819 35.592598 -0.12662904 282
-100.07726 33.593781 -0.062220123 283
-101.92567 30.877386 0.0044718143 284
-105.53013 24.891884 0.0099165831 285
-107.97609 19.29863 0.055610683 286
-110.18318 8.9558973 0.19563653 287
-110.26665 7.3549633 0.20738943 288
-110.31019 5.9605269 0.23379864 289
-110.32027 4.8049765 0.25493309 290
-110.31177 4.3509383 0.26358882 291
-110.35178 1.8892843 0.29446977 292
-110.38098 1.2185239 0.30246723 293
-110.41103 -0.15010281 0.3094866 294
-110.46287 -1.557215 0.29963332 295
-110.48879 -3.5397973 0.24431659 296
-110.455 -4.7855554 0.21037681 297
-110.33362 -10.467671 0.21807614 298
-110.29752 -13.619333 0.23125608 299
-110.19319 -16.746422 0.26018065 300
-110.14318 -17.780176 0.26605225 301
-110.04136 -20.566467 0.30417001 302
-109.9926 -22.721317 0.38263777 303
-109.95922 -24.110012 0.42311427 304
-109.96944 -24.987354 0.43976593 305
-109.99877 -26.092123 0.45075786 306
-110.19294 -30.148928 0.46205965 307
-110.19484 -31.436651 0.46135265 308
-110.16405 -32.510471 0.4595215 309
-110.12158 -34.440872 0.45130044 310
-110.08157 -38.673889 0.43661574 311
-110.04226 -41.892258 0.34575599 312
-110.05081 -43.359379 0.29187602 313
-110.11578 -46.137939 0.2278448 314
-110.2165 -51.255981 0.17998011 315
-110.25204 -52.574661 0.17839886 316
-110.2787 -54.228184 0.17410839 317
-110.30267 -57.14172 0.14459585 318
-110.30818 -59.348118 0.13546583 319
-110.24861 -64.979286 0.07927911 320
-110.16843 -69.800751 0.050957717 321
-110.1023 -75.016884 0.0042625517 322
-110.07644 -78.301918 -0.0053162659 323
-110.0768 -78.60376 -0.0065657287 324
-110.05253 -80.997475 -0.014051788 325
-109.96589 -84.581322 -0.053426955 326
-109.76717 -87.765312 -0.077921465 327
-109.43593 -90.638779 -0.13546376 328
-108.90041 -94.384422 -0.24795075 329
-108.76279 -94.959679 -0.24681219 330
-107.71445 -98.319611 -0.30843312 331
-106.83389 -100.74668 -0.3153514 332
-106.4609 -101.50739 -0.33142129 333
-106.25327 -102.00169 -0.33010697 334
-105.27895 -103.9115 -0.33235222 335
-103.66765 -106.39784 -0.26596612 336
-101.88248 -108.70847 -0.31492326 337
-101.53197 -109.10611 -0.30864149 338
-100.63596 -110.11096 -0.33752313 339
-98.297203 -112.5611 -0.38221818 340
-93.865471 -116.26816 -0.48447201 341
-92.919411 -117.01808 -0.48771143 342
-89.798882 -119.51806 -0.47090709 343
-89.156967 -120.01234 -0.45892882 344
-88.316071 -120.63577 -0.45039043 345
-83.934952 -124.03179 -0.45597613 346
-80.003159 -126.96822 -0.49611121 347
-79.582947 -127.2663 -0.51415682 348
-79.128349 -127.53751 -0.53018743 349
-75.21418 -130.1431 -0.62580776 350
-72.501282 -131.65965 -0.6192199 351
-67.405609 -134.08188 -0.62360865 352
-62.87421 -135.71077 -0.62519348 353
-59.128399 -136.59341 -0.60160846 354
-51.857994 -137.295 -0.57999039 355
-49.79641 -137.31299 -0.55331242 356
-46.603268 -137.34532 -0.35660592 357
-43.914349 -137.18092 -0.34203079 358
-41.947796 -137.02763 -0.33068997 359
-38.079002 -136.7146 -0.29235008 360
-36.204018 -136.56578 -0.29347861 361
-35.381924 -136.48366 -0.28651255 362
-34.268997 -136.38463 -0.30082345 363
-32.597599 -136.21373 -0.30609635 364
-28.834286 -135.82082 -0.40167668 365
-22.693378 -135.41039 -0.51520687 366
-15.000543 -134.36081 -0.51397663 367
-9.1991243 -132.51582 -0.49215254 368
-7.3188138 -131.43259 -0.53633809 369
-4.0227242 -127.43886 -0.50741029 370
-3.7196238 -126.48969 -0.50522751 371
-3.2343731 -119.01897 -0.47010419 372
-3.2533579 -117.55889 -0.45114291 373
-3.2708471 -113.85172 -0.47675335 374
-3.2459757 -113.0185 -0.47633985 375
-3.1736405 -110.74243 -0.47753301 376
